0.000140 0.000015 0.019061, 0.159468 0.016761 -0.987061
0.000133 0.000043 0.019061, 0.152498 0.049550 -0.987061
0.000122 0.000070 0.019061, 0.138864 0.080173 -0.987061
0.000104 0.000094 0.019061, 0.119161 0.107293 -0.987061
0.000082 0.000114 0.019061, 0.094249 0.129723 -0.987061
0.000057 0.000128 0.019061, 0.065219 0.146484 -0.987061
0.000029 0.000137 0.019061, 0.033338 0.156843 -0.987061
0.000000 0.000140 0.019061, -0.000000 0.160346 -0.987061
-0.000029 0.000137 0.019061, -0.033338 0.156843 -0.987061
-0.000057 0.000128 0.019061, -0.065219 0.146484 -0.987061
-0.000082 0.000114 0.019061, -0.094249 0.129723 -0.987061
-0.000104 0.000094 0.019061, -0.119161 0.107293 -0.987061
-0.000122 0.000070 0.019061, -0.138864 0.080173 -0.987061
-0.000133 0.000043 0.019061, -0.152498 0.049550 -0.987061
-0.000140 0.000015 0.019061, -0.159468 0.016761 -0.987061
-0.000140 -0.000015 0.019061, -0.159468 -0.016761 -0.987061
-0.000133 -0.000043 0.019061, -0.152498 -0.049550 -0.987061
-0.000122 -0.000070 0.019061, -0.138864 -0.080173 -0.987061
-0.000104 -0.000094 0.019061, -0.119161 -0.107293 -0.987061
-0.000082 -0.000114 0.019061, -0.094249 -0.129723 -0.987061
-0.000057 -0.000128 0.019061, -0.065219 -0.146484 -0.987061
-0.000029 -0.000137 0.019061, -0.033338 -0.156843 -0.987061
0.000000 -0.000140 0.019061, -0.000000 -0.160346 -0.987061
0.000029 -0.000137 0.019061, 0.033338 -0.156843 -0.987061
0.000057 -0.000128 0.019061, 0.065219 -0.146484 -0.987061
0.000082 -0.000114 0.019061, 0.094249 -0.129723 -0.987061
0.000104 -0.000094 0.019061, 0.119161 -0.107293 -0.987061
0.000122 -0.000070 0.019061, 0.138864 -0.080173 -0.987061
0.000133 -0.000043 0.019061, 0.152498 -0.049550 -0.987061
0.000140 -0.000015 0.019061, 0.159468 -0.016761 -0.987061
0.000281 0.000015 0.019087, 0.204446 0.021488 -0.978642
0.000349 0.000044 0.019102, 0.204446 0.021488 -0.978642
0.000272 0.000073 0.019087, 0.195511 0.063525 -0.978642
0.000333 0.000116 0.019102, 0.195511 0.063525 -0.978642
0.000251 0.000128 0.019087, 0.178031 0.102786 -0.978642
0.000301 0.000182 0.019102, 0.178031 0.102786 -0.978642
0.000219 0.000177 0.019087, 0.152770 0.137554 -0.978642
0.000257 0.000241 0.019102, 0.152770 0.137554 -0.978642
0.000177 0.000219 0.019087, 0.120832 0.166311 -0.978642
0.000201 0.000289 0.019102, 0.120832 0.166311 -0.978642
0.000128 0.000251 0.019087, 0.083614 0.187799 -0.978642
0.000136 0.000325 0.019102, 0.083614 0.187799 -0.978642
0.000073 0.000272 0.019087, 0.042741 0.201080 -0.978642
0.000066 0.000346 0.019102, 0.042741 0.201080 -0.978642
0.000015 0.000281 0.019087, 0.000000 0.205572 -0.978642
-0.000007 0.000352 0.019102, -0.000000 0.205572 -0.978642
-0.000044 0.000278 0.019087, -0.042741 0.201080 -0.978642
-0.000080 0.000343 0.019102, -0.042741 0.201080 -0.978642
-0.000101 0.000263 0.019087, -0.083614 0.187799 -0.978642
-0.000150 0.000319 0.019102, -0.083614 0.187799 -0.978642
-0.000153 0.000236 0.019087, -0.120832 0.166311 -0.978642
-0.000213 0.000280 0.019102, -0.120832 0.166311 -0.978642
-0.000199 0.000199 0.019087, -0.152770 0.137554 -0.978642
-0.000267 0.000230 0.019102, -0.152770 0.137554 -0.978642
-0.000236 0.000153 0.019087, -0.178030 0.102786 -0.978642
-0.000309 0.000170 0.019102, -0.178031 0.102786 -0.978642
-0.000263 0.000101 0.019087, -0.195511 0.063525 -0.978642
-0.000337 0.000102 0.019102, -0.195511 0.063525 -0.978642
-0.000278 0.000044 0.019087, -0.204446 0.021488 -0.978642
-0.000351 0.000029 0.019102, -0.204446 0.021488 -0.978642
-0.000281 -0.000015 0.019087, -0.204446 -0.021488 -0.978642
-0.000349 -0.000044 0.019102, -0.204446 -0.021488 -0.978642
-0.000272 -0.000073 0.019087, -0.195511 -0.063525 -0.978642
-0.000333 -0.000116 0.019102, -0.195511 -0.063525 -0.978642
-0.000251 -0.000128 0.019087, -0.178031 -0.102786 -0.978642
-0.000301 -0.000182 0.019102, -0.178031 -0.102786 -0.978642
-0.000219 -0.000177 0.019087, -0.152770 -0.137554 -0.978642
-0.000257 -0.000241 0.019102, -0.152770 -0.137554 -0.978642
-0.000177 -0.000219 0.019087, -0.120832 -0.166311 -0.978642
-0.000201 -0.000289 0.019102, -0.120832 -0.166311 -0.978642
-0.000128 -0.000251 0.019087, -0.083614 -0.187799 -0.978642
-0.000136 -0.000325 0.019102, -0.083614 -0.187799 -0.978642
-0.000073 -0.000272 0.019087, -0.042741 -0.201080 -0.978642
-0.000066 -0.000346 0.019102, -0.042741 -0.201080 -0.978642
-0.000015 -0.000281 0.019087, 0.000000 -0.205572 -0.978642
0.000007 -0.000352 0.019102, -0.000000 -0.205572 -0.978642
0.000044 -0.000278 0.019087, 0.042741 -0.201080 -0.978642
0.000080 -0.000343 0.019102, 0.042741 -0.201080 -0.978642
0.000101 -0.000263 0.019087, 0.083614 -0.187799 -0.978642
0.000150 -0.000319 0.019102, 0.083614 -0.187799 -0.978642
0.000153 -0.000236 0.019087, 0.120832 -0.166311 -0.978642
0.000213 -0.000280 0.019102, 0.120832 -0.166311 -0.978642
0.000199 -0.000199 0.019087, 0.152770 -0.137554 -0.978642
0.000267 -0.000230 0.019102, 0.152770 -0.137554 -0.978642
0.000236 -0.000153 0.019087, 0.178030 -0.102786 -0.978642
0.000309 -0.000170 0.019102, 0.178031 -0.102786 -0.978642
0.000263 -0.000101 0.019087, 0.195511 -0.063525 -0.978642
0.000337 -0.000102 0.019102, 0.195511 -0.063525 -0.978642
0.000278 -0.000044 0.019087, 0.204446 -0.021488 -0.978642
0.000351 -0.000029 0.019102, 0.204446 -0.021488 -0.978642
0.000500 0.000029 0.019136, 0.231772 0.024360 -0.972465
0.000574 0.000075 0.019154, 0.231772 0.024360 -0.972465
0.000483 0.000133 0.019136, 0.221642 0.072016 -0.972465
0.000545 0.000193 0.019154, 0.221642 0.072016 -0.972465
0.000445 0.000230 0.019136, 0.201826 0.116524 -0.972465
0.000493 0.000302 0.019154, 0.201826 0.116524 -0.972465
0.000387 0.000318 0.019136, 0.173189 0.155940 -0.972465
0.000420 0.000398 0.019154, 0.173189 0.155940 -0.972465
0.000313 0.000391 0.019136, 0.136982 0.188540 -0.972465
0.000328 0.000476 0.019154, 0.136982 0.188540 -0.972465
0.000225 0.000448 0.019136, 0.094789 0.212900 -0.972465
0.000222 0.000534 0.019154, 0.094789 0.212900 -0.972465
0.000127 0.000485 0.019136, 0.048453 0.227956 -0.972465
0.000106 0.000569 0.019154, 0.048454 0.227956 -0.972465
0.000023 0.000501 0.019136, 0.000000 0.233048 -0.972465
-0.000015 0.000578 0.019154, -0.000000 0.233048 -0.972465
-0.000082 0.000494 0.019136, -0.048453 0.227956 -0.972465
-0.000135 0.000563 0.019154, -0.048454 0.227956 -0.972465
-0.000183 0.000467 0.019136, -0.094789 0.212900 -0.972465
-0.000249 0.000522 0.019154, -0.094789 0.212900 -0.972465
-0.000276 0.000418 0.019136, -0.136982 0.188540 -0.972465
-0.000352 0.000459 0.019154, -0.136982 0.188540 -0.972465
-0.000357 0.000352 0.019136, -0.173189 0.155940 -0.972465
-0.000440 0.000376 0.019154, -0.173189 0.155940 -0.972465
-0.000422 0.000270 0.019136, -0.201826 0.116524 -0.972465
-0.000508 0.000276 0.019154, -0.201826 0.116524 -0.972465
-0.000469 0.000177 0.019136, -0.221642 0.072016 -0.972465
-0.000554 0.000165 0.019154, -0.221642 0.072016 -0.972465
-0.000495 0.000075 0.019136, -0.231772 0.024360 -0.972465
-0.000577 0.000046 0.019154, -0.231772 0.024360 -0.972465
-0.000500 -0.000029 0.019136, -0.231772 -0.024360 -0.972465
-0.000574 -0.000075 0.019154, -0.231772 -0.024360 -0.972465
-0.000483 -0.000133 0.019136, -0.221642 -0.072016 -0.972465
-0.000545 -0.000193 0.019154, -0.221642 -0.072016 -0.972465
-0.000445 -0.000230 0.019136, -0.201826 -0.116524 -0.972465
-0.000493 -0.000302 0.019154, -0.201826 -0.116524 -0.972465
-0.000387 -0.000318 0.019136, -0.173189 -0.155940 -0.972465
-0.000420 -0.000398 0.019154, -0.173189 -0.155940 -0.972465
-0.000313 -0.000391 0.019136, -0.136982 -0.188540 -0.972465
-0.000328 -0.000476 0.019154, -0.136982 -0.188540 -0.972465
-0.000225 -0.000448 0.019136, -0.094789 -0.212900 -0.972465
-0.000222 -0.000534 0.019154, -0.094789 -0.212900 -0.972465
-0.000127 -0.000485 0.019136, -0.048453 -0.227956 -0.972465
-0.000106 -0.000569 0.019154, -0.048454 -0.227956 -0.972465
-0.000023 -0.000501 0.019136, 0.000000 -0.233048 -0.972465
0.000015 -0.000578 0.019154, -0.000000 -0.233048 -0.972465
0.000082 -0.000494 0.019136, 0.048453 -0.227956 -0.972465
0.000135 -0.000563 0.019154, 0.048454 -0.227956 -0.972465
0.000183 -0.000467 0.019136, 0.094789 -0.212900 -0.972465
0.000249 -0.000522 0.019154, 0.094789 -0.212900 -0.972465
0.000276 -0.000418 0.019136, 0.136982 -0.188540 -0.972465
0.000352 -0.000459 0.019154, 0.136982 -0.188540 -0.972465
0.000357 -0.000352 0.019136, 0.173189 -0.155940 -0.972465
0.000440 -0.000376 0.019154, 0.173189 -0.155940 -0.972465
0.000422 -0.000270 0.019136, 0.201826 -0.116524 -0.972465
0.000508 -0.000276 0.019154, 0.201826 -0.116524 -0.972465
0.000469 -0.000177 0.019136, 0.221642 -0.072016 -0.972465
0.000554 -0.000165 0.019154, 0.221642 -0.072016 -0.972465
0.000495 -0.000075 0.019136, 0.231772 -0.024360 -0.972465
0.000577 -0.000046 0.019154, 0.231772 -0.024360 -0.972465
0.000702 0.000046 0.019236, 0.795369 0.083597 -0.600333
0.000743 0.000101 0.019298, 0.795369 0.083596 -0.600333
0.000677 0.000191 0.019236, 0.760608 0.247137 -0.600333
0.000706 0.000254 0.019298, 0.760608 0.247137 -0.600333
0.000623 0.000327 0.019236, 0.692604 0.399875 -0.600333
0.000638 0.000395 0.019298, 0.692604 0.399875 -0.600333
0.000541 0.000450 0.019236, 0.594330 0.535138 -0.600333
0.000542 0.000519 0.019298, 0.594330 0.535137 -0.600333
0.000436 0.000552 0.019236, 0.470082 0.647011 -0.600333
0.000422 0.000620 0.019298, 0.470081 0.647012 -0.600333
0.000311 0.000631 0.019236, 0.325288 0.730609 -0.600333
0.000284 0.000694 0.019298, 0.325288 0.730608 -0.600333
0.000173 0.000682 0.019236, 0.166278 0.782274 -0.600333
0.000133 0.000738 0.019298, 0.166278 0.782274 -0.600333
0.000028 0.000703 0.019236, 0.000000 0.799750 -0.600333
-0.000023 0.000750 0.019298, -0.000000 0.799750 -0.600333
-0.000119 0.000693 0.019236, -0.166278 0.782274 -0.600333
-0.000178 0.000729 0.019298, -0.166278 0.782274 -0.600333
-0.000260 0.000654 0.019236, -0.325287 0.730608 -0.600333
-0.000326 0.000676 0.019298, -0.325288 0.730608 -0.600333
-0.000391 0.000585 0.019236, -0.470082 0.647012 -0.600333
-0.000459 0.000593 0.019298, -0.470081 0.647012 -0.600333
-0.000504 0.000491 0.019236, -0.594330 0.535138 -0.600333
-0.000573 0.000485 0.019298, -0.594330 0.535137 -0.600333
-0.000595 0.000376 0.019236, -0.692604 0.399875 -0.600333
-0.000661 0.000355 0.019298, -0.692604 0.399875 -0.600333
-0.000660 0.000244 0.019236, -0.760608 0.247137 -0.600333
-0.000720 0.000210 0.019298, -0.760608 0.247137 -0.600333
-0.000696 0.000101 0.019236, -0.795369 0.083597 -0.600333
-0.000748 0.000056 0.019298, -0.795369 0.083596 -0.600333
-0.000702 -0.000046 0.019236, -0.795369 -0.083597 -0.600333
-0.000743 -0.000101 0.019298, -0.795369 -0.083596 -0.600333
-0.000677 -0.000191 0.019236, -0.760608 -0.247137 -0.600333
-0.000706 -0.000254 0.019298, -0.760608 -0.247137 -0.600333
-0.000623 -0.000327 0.019236, -0.692604 -0.399875 -0.600333
-0.000638 -0.000395 0.019298, -0.692604 -0.399875 -0.600333
-0.000541 -0.000450 0.019236, -0.594330 -0.535138 -0.600333
-0.000542 -0.000519 0.019298, -0.594330 -0.535137 -0.600333
-0.000436 -0.000552 0.019236, -0.470082 -0.647011 -0.600333
-0.000422 -0.000620 0.019298, -0.470081 -0.647012 -0.600333
-0.000311 -0.000631 0.019236, -0.325288 -0.730609 -0.600333
-0.000284 -0.000694 0.019298, -0.325288 -0.730608 -0.600333
-0.000173 -0.000682 0.019236, -0.166278 -0.782274 -0.600333
-0.000133 -0.000738 0.019298, -0.166278 -0.782274 -0.600333
-0.000028 -0.000703 0.019236, 0.000000 -0.799750 -0.600333
0.000023 -0.000750 0.019298, -0.000000 -0.799750 -0.600333
0.000119 -0.000693 0.019236, 0.166278 -0.782274 -0.600333
0.000178 -0.000729 0.019298, 0.166278 -0.782274 -0.600333
0.000260 -0.000654 0.019236, 0.325287 -0.730608 -0.600333
0.000326 -0.000676 0.019298, 0.325288 -0.730608 -0.600333
0.000391 -0.000585 0.019236, 0.470082 -0.647012 -0.600333
0.000459 -0.000593 0.019298, 0.470081 -0.647012 -0.600333
0.000504 -0.000491 0.019236, 0.594330 -0.535138 -0.600333
0.000573 -0.000485 0.019298, 0.594330 -0.535137 -0.600333
0.000595 -0.000376 0.019236, 0.692604 -0.399875 -0.600333
0.000661 -0.000355 0.019298, 0.692604 -0.399875 -0.600333
0.000660 -0.000244 0.019236, 0.760608 -0.247137 -0.600333
0.000720 -0.000210 0.019298, 0.760608 -0.247137 -0.600333
0.000696 -0.000101 0.019236, 0.795369 -0.083597 -0.600333
0.000748 -0.000056 0.019298, 0.795369 -0.083596 -0.600333
0.000837 0.000056 0.019425, 0.836760 0.087947 -0.540461
0.000872 0.000120 0.019490, 0.836760 0.087947 -0.540460
0.000807 0.000228 0.019425, 0.800190 0.259998 -0.540460
0.000828 0.000298 0.019490, 0.800190 0.259997 -0.540461
0.000742 0.000391 0.019425, 0.728647 0.420684 -0.540461
0.000748 0.000464 0.019490, 0.728647 0.420685 -0.540460
0.000645 0.000537 0.019425, 0.625259 0.562986 -0.540460
0.000635 0.000609 0.019490, 0.625259 0.562986 -0.540460
0.000519 0.000659 0.019425, 0.494544 0.680682 -0.540460
0.000494 0.000728 0.019490, 0.494545 0.680682 -0.540461
0.000370 0.000753 0.019425, 0.342216 0.768629 -0.540461
0.000332 0.000815 0.019490, 0.342216 0.768629 -0.540460
0.000206 0.000813 0.019425, 0.174931 0.822983 -0.540460
0.000156 0.000866 0.019490, 0.174931 0.822984 -0.540460
0.000032 0.000838 0.019425, 0.000000 0.841369 -0.540460
-0.000028 0.000880 0.019490, -0.000000 0.841369 -0.540460
-0.000143 0.000827 0.019425, -0.174931 0.822984 -0.540460
-0.000210 0.000855 0.019490, -0.174931 0.822983 -0.540460
-0.000312 0.000779 0.019425, -0.342216 0.768629 -0.540460
-0.000383 0.000792 0.019490, -0.342216 0.768629 -0.540461
-0.000467 0.000697 0.019425, -0.494544 0.680682 -0.540461
-0.000540 0.000695 0.019490, -0.494545 0.680682 -0.540460
-0.000601 0.000585 0.019425, -0.625259 0.562986 -0.540460
-0.000672 0.000568 0.019490, -0.625259 0.562986 -0.540460
-0.000710 0.000447 0.019425, -0.728648 0.420684 -0.540460
-0.000776 0.000416 0.019490, -0.728647 0.420685 -0.540461
-0.000787 0.000290 0.019425, -0.800190 0.259998 -0.540461
-0.000845 0.000245 0.019490, -0.800190 0.259997 -0.540460
-0.000830 0.000120 0.019425, -0.836760 0.087947 -0.540460
-0.000878 0.000064 0.019490, -0.836760 0.087947 -0.540461
-0.000837 -0.000056 0.019425, -0.836760 -0.087947 -0.540461
-0.000872 -0.000120 0.019490, -0.836760 -0.087947 -0.540460
-0.000807 -0.000228 0.019425, -0.800190 -0.259998 -0.540460
-0.000828 -0.000298 0.019490, -0.800190 -0.259997 -0.540461
-0.000742 -0.000391 0.019425, -0.728647 -0.420684 -0.540461
-0.000748 -0.000464 0.019490, -0.728647 -0.420685 -0.540460
-0.000645 -0.000537 0.019425, -0.625259 -0.562986 -0.540460
-0.000635 -0.000609 0.019490, -0.625259 -0.562986 -0.540460
-0.000519 -0.000659 0.019425, -0.494544 -0.680682 -0.540460
-0.000494 -0.000728 0.019490, -0.494545 -0.680682 -0.540461
-0.000370 -0.000753 0.019425, -0.342216 -0.768629 -0.540461
-0.000332 -0.000815 0.019490, -0.342216 -0.768629 -0.540460
-0.000206 -0.000813 0.019425, -0.174931 -0.822983 -0.540460
-0.000156 -0.000866 0.019490, -0.174931 -0.822984 -0.540460
-0.000032 -0.000838 0.019425, 0.000000 -0.841369 -0.540460
0.000028 -0.000880 0.019490, -0.000000 -0.841369 -0.540460
0.000143 -0.000827 0.019425, 0.174931 -0.822984 -0.540460
0.000210 -0.000855 0.019490, 0.174931 -0.822983 -0.540460
0.000312 -0.000779 0.019425, 0.342216 -0.768629 -0.540460
0.000383 -0.000792 0.019490, 0.342216 -0.768629 -0.540461
0.000467 -0.000697 0.019425, 0.494544 -0.680682 -0.540461
0.000540 -0.000695 0.019490, 0.494545 -0.680682 -0.540460
0.000601 -0.000585 0.019425, 0.625259 -0.562986 -0.540460
0.000672 -0.000568 0.019490, 0.625259 -0.562986 -0.540460
0.000710 -0.000447 0.019425, 0.728648 -0.420684 -0.540460
0.000776 -0.000416 0.019490, 0.728647 -0.420685 -0.540461
0.000787 -0.000290 0.019425, 0.800190 -0.259998 -0.540461
0.000845 -0.000245 0.019490, 0.800190 -0.259997 -0.540460
0.000830 -0.000120 0.019425, 0.836760 -0.087947 -0.540460
0.000878 -0.000064 0.019490, 0.836760 -0.087947 -0.540461
0.000951 0.000064 0.019625, 0.910943 0.095744 -0.401267
0.000975 0.000135 0.019696, 0.910943 0.095744 -0.401268
0.000917 0.000260 0.019625, 0.871131 0.283047 -0.401268
0.000925 0.000335 0.019696, 0.871131 0.283047 -0.401267
0.000842 0.000445 0.019625, 0.793245 0.457981 -0.401267
0.000835 0.000520 0.019696, 0.793245 0.457980 -0.401268
0.000731 0.000611 0.019625, 0.680692 0.612897 -0.401268
0.000709 0.000682 0.019696, 0.680691 0.612898 -0.401267
0.000588 0.000749 0.019625, 0.538388 0.741028 -0.401267
0.000552 0.000814 0.019696, 0.538388 0.741028 -0.401267
0.000420 0.000855 0.019625, 0.372555 0.836772 -0.401267
0.000370 0.000911 0.019696, 0.372555 0.836772 -0.401267
0.000233 0.000924 0.019625, 0.190439 0.895945 -0.401267
0.000173 0.000969 0.019696, 0.190439 0.895945 -0.401268
0.000036 0.000952 0.019625, 0.000000 0.915961 -0.401268
-0.000032 0.000983 0.019696, -0.000000 0.915961 -0.401268
-0.000163 0.000939 0.019625, -0.190439 0.895945 -0.401268
-0.000236 0.000955 0.019696, -0.190439 0.895945 -0.401267
-0.000355 0.000884 0.019625, -0.372555 0.836772 -0.401267
-0.000429 0.000885 0.019696, -0.372555 0.836772 -0.401267
-0.000531 0.000791 0.019625, -0.538389 0.741028 -0.401267
-0.000604 0.000777 0.019696, -0.538388 0.741028 -0.401267
-0.000684 0.000664 0.019625, -0.680692 0.612897 -0.401267
-0.000752 0.000634 0.019696, -0.680691 0.612898 -0.401268
-0.000807 0.000507 0.019625, -0.793245 0.457981 -0.401268
-0.000868 0.000464 0.019696, -0.793245 0.457980 -0.401267
-0.000895 0.000328 0.019625, -0.871131 0.283047 -0.401267
-0.000945 0.000273 0.019696, -0.871131 0.283047 -0.401268
-0.000943 0.000135 0.019625, -0.910943 0.095744 -0.401268
-0.000981 0.000071 0.019696, -0.910943 0.095744 -0.401267
-0.000951 -0.000064 0.019625, -0.910943 -0.095744 -0.401267
-0.000975 -0.000135 0.019696, -0.910943 -0.095744 -0.401268
-0.000917 -0.000260 0.019625, -0.871131 -0.283047 -0.401268
-0.000925 -0.000335 0.019696, -0.871131 -0.283047 -0.401267
-0.000842 -0.000445 0.019625, -0.793245 -0.457981 -0.401267
-0.000835 -0.000520 0.019696, -0.793245 -0.457980 -0.401268
-0.000731 -0.000611 0.019625, -0.680692 -0.612897 -0.401268
-0.000709 -0.000682 0.019696, -0.680691 -0.612898 -0.401267
-0.000588 -0.000749 0.019625, -0.538388 -0.741028 -0.401267
-0.000552 -0.000814 0.019696, -0.538388 -0.741028 -0.401267
-0.000420 -0.000855 0.019625, -0.372555 -0.836772 -0.401267
-0.000370 -0.000911 0.019696, -0.372555 -0.836772 -0.401267
-0.000233 -0.000924 0.019625, -0.190439 -0.895945 -0.401267
-0.000173 -0.000969 0.019696, -0.190439 -0.895945 -0.401268
-0.000036 -0.000952 0.019625, 0.000000 -0.915961 -0.401268
0.000032 -0.000983 0.019696, -0.000000 -0.915961 -0.401268
0.000163 -0.000939 0.019625, 0.190439 -0.895945 -0.401268
0.000236 -0.000955 0.019696, 0.190439 -0.895945 -0.401267
0.000355 -0.000884 0.019625, 0.372555 -0.836772 -0.401267
0.000429 -0.000885 0.019696, 0.372555 -0.836772 -0.401267
0.000531 -0.000791 0.019625, 0.538389 -0.741028 -0.401267
0.000604 -0.000777 0.019696, 0.538388 -0.741028 -0.401267
0.000684 -0.000664 0.019625, 0.680692 -0.612897 -0.401267
0.000752 -0.000634 0.019696, 0.680691 -0.612898 -0.401268
0.000807 -0.000507 0.019625, 0.793245 -0.457981 -0.401268
0.000868 -0.000464 0.019696, 0.793245 -0.457980 -0.401267
0.000895 -0.000328 0.019625, 0.871131 -0.283047 -0.401267
0.000945 -0.000273 0.019696, 0.871131 -0.283047 -0.401268
0.000943 -0.000135 0.019625, 0.910943 -0.095744 -0.401268
0.000981 -0.000071 0.019696, 0.910943 -0.095744 -0.401267
0.000954 0.000071 0.019845, 0.794578 0.083513 0.601392
0.000889 0.000129 0.019922, 0.794577 0.083514 0.601392
0.000918 0.000267 0.019845, 0.759851 0.246890 0.601392
0.000843 0.000311 0.019922, 0.759850 0.246890 0.601392
0.000843 0.000453 0.019845, 0.691915 0.399477 0.601392
0.000760 0.000480 0.019922, 0.691915 0.399477 0.601392
0.000730 0.000618 0.019845, 0.593739 0.534605 0.601392
0.000643 0.000627 0.019922, 0.593738 0.534605 0.601392
0.000586 0.000756 0.019845, 0.469613 0.646367 0.601392
0.000499 0.000747 0.019922, 0.469614 0.646367 0.601392
0.000416 0.000861 0.019845, 0.324964 0.729881 0.601392
0.000333 0.000834 0.019922, 0.324964 0.729881 0.601392
0.000228 0.000929 0.019845, 0.166112 0.781495 0.601392
0.000152 0.000885 0.019922, 0.166112 0.781495 0.601392
0.000029 0.000956 0.019845, 0.000000 0.798954 0.601392
-0.000036 0.000898 0.019922, -0.000000 0.798954 0.601392
-0.000170 0.000941 0.019845, -0.166112 0.781495 0.601392
-0.000221 0.000871 0.019922, -0.166112 0.781495 0.601392
-0.000362 0.000885 0.019845, -0.324964 0.729881 0.601392
-0.000398 0.000806 0.019922, -0.324964 0.729881 0.601392
-0.000538 0.000791 0.019845, -0.469613 0.646368 0.601392
-0.000556 0.000705 0.019922, -0.469614 0.646367 0.601392
-0.000691 0.000662 0.019845, -0.593738 0.534605 0.601392
-0.000691 0.000574 0.019922, -0.593738 0.534605 0.601392
-0.000813 0.000503 0.019845, -0.691915 0.399477 0.601392
-0.000795 0.000418 0.019922, -0.691915 0.399477 0.601392
-0.000900 0.000323 0.019845, -0.759850 0.246890 0.601392
-0.000865 0.000244 0.019922, -0.759850 0.246890 0.601392
-0.000948 0.000129 0.019845, -0.794577 0.083513 0.601392
-0.000896 0.000058 0.019922, -0.794577 0.083514 0.601392
-0.000954 -0.000071 0.019845, -0.794578 -0.083513 0.601392
-0.000889 -0.000129 0.019922, -0.794577 -0.083514 0.601392
-0.000918 -0.000267 0.019845, -0.759851 -0.246890 0.601392
-0.000843 -0.000311 0.019922, -0.759850 -0.246890 0.601392
-0.000843 -0.000453 0.019845, -0.691915 -0.399477 0.601392
-0.000760 -0.000480 0.019922, -0.691915 -0.399477 0.601392
-0.000730 -0.000618 0.019845, -0.593739 -0.534605 0.601392
-0.000643 -0.000627 0.019922, -0.593738 -0.534605 0.601392
-0.000586 -0.000756 0.019845, -0.469613 -0.646367 0.601392
-0.000499 -0.000747 0.019922, -0.469614 -0.646367 0.601392
-0.000416 -0.000861 0.019845, -0.324964 -0.729881 0.601392
-0.000333 -0.000834 0.019922, -0.324964 -0.729881 0.601392
-0.000228 -0.000929 0.019845, -0.166112 -0.781495 0.601392
-0.000152 -0.000885 0.019922, -0.166112 -0.781495 0.601392
-0.000029 -0.000956 0.019845, 0.000000 -0.798954 0.601392
0.000036 -0.000898 0.019922, -0.000000 -0.798954 0.601392
0.000170 -0.000941 0.019845, 0.166112 -0.781495 0.601392
0.000221 -0.000871 0.019922, 0.166112 -0.781495 0.601392
0.000362 -0.000885 0.019845, 0.324964 -0.729881 0.601392
0.000398 -0.000806 0.019922, 0.324964 -0.729881 0.601392
0.000538 -0.000791 0.019845, 0.469613 -0.646368 0.601392
0.000556 -0.000705 0.019922, 0.469614 -0.646367 0.601392
0.000691 -0.000662 0.019845, 0.593738 -0.534605 0.601392
0.000691 -0.000574 0.019922, 0.593738 -0.534605 0.601392
0.000813 -0.000503 0.019845, 0.691915 -0.399477 0.601392
0.000795 -0.000418 0.019922, 0.691915 -0.399477 0.601392
0.000900 -0.000323 0.019845, 0.759850 -0.246890 0.601392
0.000865 -0.000244 0.019922, 0.759850 -0.246890 0.601392
0.000948 -0.000129 0.019845, 0.794577 -0.083513 0.601392
0.000896 -0.000058 0.019922, 0.794577 -0.083514 0.601392
