0.000335 0.000109 0.054979, -0.055633 -0.018076 -0.998288
0.000207 0.000285 0.054979, -0.034383 -0.047324 -0.998288
0.000000 0.000352 0.054979, -0.000000 -0.058496 -0.998288
-0.000207 0.000285 0.054979, 0.034383 -0.047324 -0.998288
-0.000335 0.000109 0.054979, 0.055633 -0.018076 -0.998288
-0.000335 -0.000109 0.054979, 0.055633 0.018076 -0.998288
-0.000207 -0.000285 0.054979, 0.034383 0.047324 -0.998288
-0.000000 -0.000352 0.054979, -0.000000 0.058496 -0.998288
0.000207 -0.000285 0.054979, -0.034383 0.047324 -0.998288
0.000335 -0.000109 0.054979, -0.055633 0.018076 -0.998288
0.000705 0.000109 0.054938, -0.166687 -0.054160 -0.984521
0.000820 0.000327 0.054906, -0.166687 -0.054160 -0.984521
0.000507 0.000503 0.054938, -0.103018 -0.141792 -0.984521
0.000471 0.000746 0.054906, -0.103018 -0.141792 -0.984521
0.000114 0.000704 0.054938, -0.000000 -0.175265 -0.984521
-0.000057 0.000881 0.054906, -0.000000 -0.175265 -0.984521
-0.000321 0.000637 0.054938, 0.103018 -0.141792 -0.984521
-0.000564 0.000679 0.054906, 0.103018 -0.141792 -0.984521
-0.000635 0.000327 0.054938, 0.166687 -0.054160 -0.984521
-0.000855 0.000218 0.054906, 0.166687 -0.054160 -0.984521
-0.000705 -0.000109 0.054938, 0.166687 0.054160 -0.984521
-0.000820 -0.000327 0.054906, 0.166687 0.054160 -0.984521
-0.000507 -0.000503 0.054938, 0.103018 0.141792 -0.984521
-0.000471 -0.000746 0.054906, 0.103018 0.141792 -0.984521
-0.000114 -0.000704 0.054938, 0.000000 0.175265 -0.984521
0.000057 -0.000881 0.054906, -0.000000 0.175265 -0.984521
0.000321 -0.000637 0.054938, -0.103018 0.141792 -0.984521
0.000564 -0.000679 0.054906, -0.103018 0.141792 -0.984521
0.000635 -0.000327 0.054938, -0.166687 0.054160 -0.984521
0.000855 -0.000218 0.054906, -0.166687 0.054160 -0.984521
0.001226 0.000218 0.054821, -0.277113 -0.090040 -0.956609
0.001305 0.000544 0.054768, -0.277113 -0.090040 -0.956609
0.000864 0.000896 0.054821, -0.171266 -0.235727 -0.956609
0.000736 0.001207 0.054768, -0.171266 -0.235727 -0.956609
0.000172 0.001233 0.054821, -0.000000 -0.291374 -0.956609
-0.000114 0.001409 0.054768, -0.000000 -0.291374 -0.956609
-0.000586 0.001098 0.054821, 0.171266 -0.235727 -0.956609
-0.000921 0.001073 0.054768, 0.171266 -0.235727 -0.956609
-0.001119 0.000544 0.054821, 0.277113 -0.090040 -0.956609
-0.001375 0.000327 0.054768, 0.277113 -0.090040 -0.956609
-0.001226 -0.000218 0.054821, 0.277113 0.090040 -0.956609
-0.001305 -0.000544 0.054768, 0.277113 0.090040 -0.956609
-0.000864 -0.000896 0.054821, 0.171266 0.235727 -0.956609
-0.000736 -0.001207 0.054768, 0.171266 0.235727 -0.956609
-0.000172 -0.001233 0.054821, 0.000000 0.291374 -0.956609
0.000114 -0.001409 0.054768, 0.000000 0.291374 -0.956609
0.000586 -0.001098 0.054821, -0.171266 0.235727 -0.956609
0.000921 -0.001073 0.054768, -0.171266 0.235727 -0.956609
0.001119 -0.000544 0.054821, -0.277113 0.090040 -0.956609
0.001375 -0.000327 0.054768, -0.277113 0.090040 -0.956609
0.001746 0.000327 0.054636, -0.386514 -0.125586 -0.913693
0.001789 0.000762 0.054557, -0.386514 -0.125586 -0.913693
0.001220 0.001290 0.054636, -0.238879 -0.328788 -0.913693
0.001000 0.001668 0.054557, -0.238879 -0.328788 -0.913693
0.000229 0.001761 0.054636, -0.000000 -0.406405 -0.913693
-0.000172 0.001937 0.054557, -0.000000 -0.406405 -0.913693
-0.000850 0.001559 0.054636, 0.238879 -0.328788 -0.913693
-0.001278 0.001466 0.054557, 0.238879 -0.328788 -0.913693
-0.001604 0.000762 0.054636, 0.386514 -0.125586 -0.913693
-0.001896 0.000435 0.054557, 0.386514 -0.125586 -0.913693
-0.001746 -0.000327 0.054636, 0.386514 0.125586 -0.913693
-0.001789 -0.000762 0.054557, 0.386514 0.125586 -0.913693
-0.001220 -0.001290 0.054636, 0.238879 0.328788 -0.913693
-0.001000 -0.001668 0.054557, 0.238879 0.328788 -0.913693
-0.000229 -0.001761 0.054636, 0.000000 0.406405 -0.913693
0.000172 -0.001937 0.054557, -0.000000 0.406405 -0.913693
0.000850 -0.001559 0.054636, -0.238879 0.328788 -0.913693
0.001278 -0.001466 0.054557, -0.238879 0.328788 -0.913693
0.001604 -0.000762 0.054636, -0.386514 0.125586 -0.913693
0.001896 -0.000435 0.054557, -0.386514 0.125586 -0.913693
0.002266 0.000435 0.054372, -0.494523 -0.160680 -0.854183
0.002274 0.000980 0.054265, -0.494523 -0.160680 -0.854183
0.001577 0.001684 0.054372, -0.305632 -0.420667 -0.854183
0.001264 0.002129 0.054265, -0.305632 -0.420667 -0.854183
0.000286 0.002290 0.054372, -0.000000 -0.519973 -0.854183
-0.000229 0.002466 0.054265, -0.000000 -0.519973 -0.854183
-0.001114 0.002020 0.054372, 0.305632 -0.420667 -0.854183
-0.001634 0.001860 0.054265, 0.305632 -0.420667 -0.854183
-0.002089 0.000980 0.054372, 0.494523 -0.160680 -0.854183
-0.002416 0.000544 0.054265, 0.494523 -0.160680 -0.854183
-0.002266 -0.000435 0.054372, 0.494523 0.160680 -0.854183
-0.002274 -0.000980 0.054265, 0.494523 0.160680 -0.854183
-0.001577 -0.001684 0.054372, 0.305632 0.420667 -0.854183
-0.001264 -0.002129 0.054265, 0.305632 0.420667 -0.854183
-0.000286 -0.002290 0.054372, 0.000000 0.519973 -0.854183
0.000229 -0.002466 0.054265, 0.000000 0.519973 -0.854183
0.001114 -0.002020 0.054372, -0.305632 0.420667 -0.854183
0.001634 -0.001860 0.054265, -0.305632 0.420667 -0.854183
0.002089 -0.000980 0.054372, -0.494523 0.160680 -0.854183
0.002416 -0.000544 0.054265, -0.494523 0.160680 -0.854183
0.002786 0.000544 0.054014, -0.600839 -0.195224 -0.775165
0.002759 0.001197 0.053870, -0.600839 -0.195224 -0.775165
0.001934 0.002078 0.054014, -0.371339 -0.511104 -0.775165
0.001528 0.002590 0.053870, -0.371339 -0.511104 -0.775165
0.000343 0.002818 0.054014, -0.000000 -0.631759 -0.775165
-0.000286 0.002994 0.053870, -0.000000 -0.631759 -0.775165
-0.001379 0.002482 0.054014, 0.371339 -0.511104 -0.775165
-0.001991 0.002254 0.053870, 0.371339 -0.511104 -0.775165
-0.002574 0.001197 0.054014, 0.600839 -0.195224 -0.775165
-0.002936 0.000653 0.053870, 0.600839 -0.195224 -0.775165
-0.002786 -0.000544 0.054014, 0.600839 0.195224 -0.775165
-0.002759 -0.001197 0.053870, 0.600839 0.195224 -0.775165
-0.001934 -0.002078 0.054014, 0.371339 0.511104 -0.775165
-0.001528 -0.002590 0.053870, 0.371339 0.511104 -0.775165
-0.000343 -0.002818 0.054014, 0.000000 0.631759 -0.775165
0.000286 -0.002994 0.053870, 0.000000 0.631759 -0.775165
0.001379 -0.002482 0.054014, -0.371339 0.511104 -0.775165
0.001991 -0.002254 0.053870, -0.371339 0.511104 -0.775165
0.002574 -0.001197 0.054014, -0.600839 0.195224 -0.775165
0.002936 -0.000653 0.053870, -0.600839 0.195224 -0.775165
0.003306 0.000653 0.053532, -0.705297 -0.229165 -0.670849
0.003244 0.001415 0.053337, -0.705297 -0.229165 -0.670849
0.002291 0.002472 0.053532, -0.435898 -0.599962 -0.670849
0.001793 0.003052 0.053337, -0.435898 -0.599962 -0.670849
0.000401 0.003346 0.053532, -0.000000 -0.741594 -0.670849
-0.000343 0.003522 0.053337, -0.000000 -0.741594 -0.670849
-0.001643 0.002943 0.053532, 0.435898 -0.599962 -0.670849
-0.002348 0.002648 0.053337, 0.435898 -0.599962 -0.670849
-0.003059 0.001415 0.053532, 0.705297 -0.229165 -0.670849
-0.003456 0.000762 0.053337, 0.705297 -0.229165 -0.670849
-0.003306 -0.000653 0.053532, 0.705297 0.229165 -0.670849
-0.003244 -0.001415 0.053337, 0.705297 0.229165 -0.670849
-0.002291 -0.002472 0.053532, 0.435898 0.599962 -0.670849
-0.001793 -0.003052 0.053337, 0.435898 0.599962 -0.670849
-0.000401 -0.003346 0.053532, 0.000000 0.741594 -0.670849
0.000343 -0.003522 0.053337, 0.000000 0.741594 -0.670849
0.001643 -0.002943 0.053532, -0.435898 0.599962 -0.670849
0.002348 -0.002648 0.053337, -0.435898 0.599962 -0.670849
0.003059 -0.001415 0.053532, -0.705297 0.229165 -0.670849
0.003456 -0.000762 0.053337, -0.705297 0.229165 -0.670849
0.003827 0.000762 0.052859, -0.808274 -0.262624 -0.526993
0.003729 0.001633 0.052575, -0.808274 -0.262624 -0.526993
0.002648 0.002866 0.052859, -0.499541 -0.687559 -0.526993
0.002057 0.003513 0.052575, -0.499541 -0.687559 -0.526993
0.000458 0.003875 0.052859, -0.000000 -0.849870 -0.526993
-0.000401 0.004051 0.052575, -0.000000 -0.849870 -0.526993
-0.001907 0.003404 0.052859, 0.499541 -0.687559 -0.526993
-0.002705 0.003042 0.052575, 0.499541 -0.687559 -0.526993
-0.003544 0.001633 0.052859, 0.808274 -0.262624 -0.526993
-0.003976 0.000871 0.052575, 0.808274 -0.262624 -0.526993
-0.003827 -0.000762 0.052859, 0.808274 0.262624 -0.526993
-0.003729 -0.001633 0.052575, 0.808274 0.262624 -0.526993
-0.002648 -0.002866 0.052859, 0.499541 0.687559 -0.526993
-0.002057 -0.003513 0.052575, 0.499541 0.687559 -0.526993
-0.000458 -0.003875 0.052859, 0.000000 0.849870 -0.526993
0.000401 -0.004051 0.052575, -0.000000 0.849870 -0.526993
0.001907 -0.003404 0.052859, -0.499541 0.687559 -0.526993
0.002705 -0.003042 0.052575, -0.499541 0.687559 -0.526993
0.003544 -0.001633 0.052859, -0.808274 0.262624 -0.526993
0.003976 -0.000871 0.052575, -0.808274 0.262624 -0.526993
0.004347 0.000871 0.051527, -0.926722 -0.301110 -0.224763
0.004214 0.001850 0.050764, -0.926722 -0.301110 -0.224763
0.003005 0.003259 0.051527, -0.572746 -0.788317 -0.224763
0.002321 0.003974 0.050764, -0.572746 -0.788317 -0.224763
0.000515 0.004403 0.051527, -0.000000 -0.974413 -0.224763
-0.000458 0.004579 0.050764, -0.000000 -0.974413 -0.224763
-0.002171 0.003865 0.051527, 0.572746 -0.788317 -0.224763
-0.003062 0.003436 0.050764, 0.572746 -0.788317 -0.224763
-0.004028 0.001850 0.051527, 0.926722 -0.301110 -0.224763
-0.004497 0.000980 0.050764, 0.926722 -0.301110 -0.224763
-0.004347 -0.000871 0.051527, 0.926722 0.301110 -0.224763
-0.004214 -0.001850 0.050764, 0.926722 0.301110 -0.224763
-0.003005 -0.003259 0.051527, 0.572746 0.788317 -0.224763
-0.002321 -0.003974 0.050764, 0.572746 0.788317 -0.224763
-0.000515 -0.004403 0.051527, 0.000000 0.974413 -0.224763
0.000458 -0.004579 0.050764, -0.000000 0.974413 -0.224763
0.002171 -0.003865 0.051527, -0.572746 0.788317 -0.224763
0.003062 -0.003436 0.050764, -0.572746 0.788317 -0.224763
0.004028 -0.001850 0.051527, -0.926722 0.301110 -0.224763
0.004497 -0.000980 0.050764, -0.926722 0.301110 -0.224763
